# .PCD v0.7 - Point Cloud Data file format
VERSION 0.7
FIELDS x y z rgba
SIZE 4 4 4 4
TYPE F F F U
COUNT 1 1 1 1
WIDTH 1008
HEIGHT 1
VIEWPOINT 0 0 0 1 0 0 0
POINTS 1008
DATA ascii
0.15826207 0.22083019 -0.069523759 4289439908
0.13729958 0.19334003 -0.06792324 4289308067
0.12652932 0.17721157 -0.067383818 4289374116
0.11156736 0.15391752 -0.066522852 4289111714
0.12684777 0.15184806 -0.06825877 4287793282
0.10488053 0.14449309 -0.068880327 4288979614
0.098520219 0.13383918 -0.066471405 4288847770
0.16127914 0.13960104 -0.067179717 4287002998
0.091523148 0.12429449 -0.06879586 4288716184
0.086740665 0.11645257 -0.066918246 4288716184
0.081181832 0.10927939 -0.064762659 4288650391
0.069673516 0.091933534 -0.066427663 4288256402
0.067019805 0.087436222 -0.069092669 4288190608
0.06099942 0.079277627 -0.066787235 4288190353
0.085322887 0.073748946 -0.063822761 4285095517
0.0909146 0.072298251 -0.068121739 4286345840
0.053755384 0.069102727 -0.064085938 4288256403
0.044955552 0.056401469 -0.065704614 4288124560
0.039587975 0.049333356 -0.069690503 4287730059
0.029956801 0.036108304 -0.064602315 4288322453
0.023716252 0.026382912 -0.068449527 4288322196
0.016140383 0.016351735 -0.068129256 4288519320
0.0096486136 0.0066451044 -0.069039933 4288651163
0.239675 -0.00086969812 -0.068120576 4289639091
0.2508859 -0.007464482 -0.068263821 4289836728
0.26426142 -0.017489623 -0.06756746 4289967289
0.28543931 -0.035332374 -0.065486819 4290032570
0.30135196 -0.046287335 -0.064929798 4290032572
0.31237245 -0.058211118 -0.063755475 4289967036
0.049562301 -0.10704926 -0.067235053 4279899924
0.057778649 -0.10614111 -0.067306295 4280095763
0.073190413 -0.11333543 -0.066695258 4285294690
0.043390326 -0.12685458 -0.067267716 4279965975
0.051084012 -0.12375667 -0.060802042 4279834390
0.1085617 -0.12154652 -0.066604629 4280362272
0.11349814 -0.12190238 -0.063088149 4280690980
0.045879222 -0.13295974 -0.060936376 4279900439
0.092395082 -0.13577035 -0.063329794 4280164893
0.10317621 -0.13518138 -0.063970454 4283782738
0.034049373 -0.14337477 -0.067541912 4280031768
0.079251632 -0.14289063 -0.065776467 4279967514
0.11147819 -0.14267246 -0.064784229 4287269515
0.028780488 -0.15631059 -0.064232603 4280097817
0.059116807 -0.15805335 -0.064676695 4279770392
0.064178593 -0.15473503 -0.064668722 4279770393
0.12249973 -0.15258051 -0.063268937 4287467664
0.13001086 -0.15777378 -0.069701456 4287861908
-0.064902157 -0.16021028 -0.069582708 4288389028
0.024339221 -0.16647632 -0.063578978 4280229659
0.054219276 -0.1660641 -0.060790822 4279967000
0.13195394 -0.16037354 -0.06250222 4287861654
-0.065906085 -0.17274974 -0.06653323 4288322978
-0.0074831117 -0.17656071 -0.068372533 4286414969
0.0027201169 -0.1752881 -0.061236676 4286612091
0.015102434 -0.17259678 -0.068893306 4280229662
0.023372462 -0.17971076 -0.067730039 4280033562
0.03536446 -0.17447408 -0.065139763 4279835927
-0.066058844 -0.18092473 -0.064246997 4288256927
-0.015207008 -0.18265606 -0.066625133 4288256658
-0.0043286472 -0.18103279 -0.060348984 4288125074
0.013378969 -0.18553995 -0.060147885 4280294942
-0.065007366 -0.19740929 -0.061913077 4288125340
-0.056560822 -0.19643651 -0.068323247 4287993239
0.002714718 -0.19350708 -0.067257866 4280426528
-0.057062529 -0.20203495 -0.066437252 4288124567
-0.061465804 -0.21042462 -0.060998283 4288059290
-0.059885342 -0.21943808 -0.060547441 4288058777
0.18718606 -0.21593069 -0.067174479 4287399810
-0.050577838 -0.22221132 -0.067552499 4287992211
-0.051075641 -0.2340159 -0.064083219 4287926932
-0.048008133 -0.24340439 -0.064917855 4287860625
-0.045198917 -0.25748506 -0.064476065 4287794831
-0.045513261 -0.26286227 -0.062816307 4287860369
-0.038517047 -0.27156633 -0.067258947 4287662989
-0.039365891 -0.28355077 -0.063981652 4287531660
-0.031525247 -0.29169637 -0.069532588 4287334278
-0.036070235 -0.30560088 -0.063137949 4287334794
-0.034083188 -0.31755802 -0.06170493 4287138443
-0.026758201 -0.31924981 -0.068359554 4286941066
-0.034539517 -0.32541725 -0.060545113 4287073167
-0.027449246 -0.32783303 -0.066280514 4286941068
-0.028313447 -0.33735278 -0.063683413 4286547594
-0.03072783 -0.35310256 -0.061096232 4286811539
-0.023722343 -0.35813814 -0.065879926 4286614157
-0.024221843 -0.36919391 -0.063781649 4286744720
-0.025251355 -0.382007 -0.060550347 4286811028
-0.016531818 -0.38410813 -0.068204328 4286547855
0.18828338 0.26369929 -0.075633898 4289440683
0.19878986 0.26403186 -0.074769035 4289901754
0.17994423 0.25625381 -0.07309366 4289374629
0.2080539 0.25974125 -0.077473961 4289901755
0.17177092 0.24342012 -0.074455619 4289440165
0.16492274 0.23156719 -0.07307481 4289374373
0.16003691 0.22428855 -0.074926645 4289374372
0.15366039 0.21474251 -0.072388984 4289374115
0.14804785 0.20675479 -0.070859082 4289243041
0.13566205 0.19233894 -0.07700298 4289308066
0.14259017 0.19997546 -0.072533436 4289308066
0.12423627 0.17350106 -0.073697522 4289308322
0.11749553 0.16531429 -0.079369634 4289176735
0.1136286 0.15772638 -0.072391741 4289176735
0.13512096 0.14908461 -0.071154147 4286280303
0.10042023 0.13945955 -0.076037951 4288979355
0.15830028 0.13735639 -0.075037919 4287199607
0.16455412 0.13792793 -0.074891225 4287266428
0.089586474 0.12376414 -0.078240864 4288650646
0.083672613 0.11386134 -0.072825104 4288518804
0.078089774 0.10660793 -0.074101202 4288387474
0.054975964 0.070487611 -0.070555091 4287861644
0.061276522 0.078380466 -0.073369756 4287992972
0.057430767 0.068844788 -0.07837458 4286611832
0.10332581 0.068799235 -0.076095007 4286148460
0.044705968 0.055493087 -0.071411923 4287664265
0.034473434 0.042589575 -0.072725408 4287269508
0.02838584 0.034281459 -0.075423084 4287006336
0.019159401 0.022541085 -0.077320091 4287466886
-0.0012831583 -0.0091887433 -0.070640683 4288585624
0.004140202 -0.00076056644 -0.072134808 4288585368
0.23406728 -0.00038067356 -0.076556772 4289902521
0.24376871 -0.0023676895 -0.073742233 4289771192
0.25703409 -0.012249505 -0.073269248 4289836728
0.26275685 -0.014452281 -0.077926584 4289835961
0.27347785 -0.024835894 -0.076315694 4290032570
0.28021619 -0.030338202 -0.070854239 4289966778
0.29634956 -0.042450584 -0.072944529 4290032572
0.30292666 -0.04763867 -0.079147302 4290032572
0.30888796 -0.053611673 -0.070923962 4290032572
0.037873041 -0.094095677 -0.07622581 4281348141
0.045382231 -0.098465353 -0.071852475 4279900438
0.052811518 -0.10114025 -0.074284494 4280491291
0.06754896 -0.10950835 -0.073332749 4285359972
0.12035371 -0.10808686 -0.076352544 4280690723
-0.066004813 -0.11984818 -0.076111242 4288653745
0.041296232 -0.11651719 -0.077031113 4279900695
0.072561257 -0.11323233 -0.078943245 4285952625
0.10377451 -0.11777172 -0.074095547 4280165151
0.11504374 -0.11255328 -0.073778778 4280493601
0.035854708 -0.12735181 -0.078836396 4279900694
0.088007189 -0.12566797 -0.076950535 4280034077
-0.063358232 -0.13282558 -0.076279297 4288586926
0.072180778 -0.13794555 -0.076140225 4279770648
0.084635563 -0.13463259 -0.070128404 4279967771
0.10542055 -0.1375763 -0.071598724 4286941318
-0.064314075 -0.14450243 -0.073491335 4288520618
0.024613222 -0.14138837 -0.079950802 4280032023
0.065469384 -0.14814842 -0.070216961 4279704599
0.11628594 -0.14538589 -0.074927382 4287401613
-0.061621808 -0.15193644 -0.074088007 4288322722
0.019511532 -0.15339355 -0.076371655 4280228889
0.040460952 -0.1592299 -0.078479476 4279704599
0.054887593 -0.15168022 -0.074799225 4279770392
0.12847628 -0.15560657 -0.078500412 4287861652
-0.054796845 -0.16392149 -0.077801421 4287993753
0.014322712 -0.16546054 -0.074309468 4280163867
0.02930402 -0.16942987 -0.076312348 4280033306
0.045119531 -0.16378309 -0.070524305 4280362272
0.13778636 -0.16372646 -0.072920665 4287928217
-0.054785788 -0.17947848 -0.073539294 4287862423
-0.020080412 -0.17874777 -0.074883848 4287335813
-0.012681437 -0.17652543 -0.074164033 4285362794
-0.049023636 -0.18960701 -0.077264175 4287927187
0.0022842449 -0.18290213 -0.07880269 4279573269
0.013570825 -0.18194744 -0.073216885 4279704598
-0.045330141 -0.19976787 -0.077415526 4287795344
-0.0059507112 -0.19351707 -0.077045351 4280361247
-0.049412061 -0.20421249 -0.072291799 4287861394
-0.015383855 -0.20636617 -0.078264676 4280492578
-0.0083792312 -0.20432425 -0.071164474 4280427042
-0.045831308 -0.21086223 -0.074035734 4287795344
0.19134025 -0.21005565 -0.074703112 4282726710
-0.039106298 -0.22573173 -0.076650925 4287794317
-0.043607939 -0.23597278 -0.07041733 4287860367
-0.036019549 -0.23781832 -0.076446325 4287728779
-0.036938917 -0.24819869 -0.074371554 4287662988
-0.034756675 -0.26548266 -0.072476231 4287597195
-0.030864036 -0.27391875 -0.073508307 4287596682
-0.024044329 -0.28918505 -0.077330083 4287400071
-0.021476585 -0.29871151 -0.077201873 4287268486
-0.022339134 -0.30975923 -0.074481599 4287137156
-0.016735645 -0.31666291 -0.077930503 4286808964
-0.021250211 -0.33935863 -0.070059866 4286415751
-0.016190693 -0.33200428 -0.075751245 4286546566
-0.013325348 -0.34113607 -0.077087484 4286283652
-0.019302424 -0.35395062 -0.071389042 4286548109
-0.0079802945 -0.35992295 -0.078849964 4286153350
-0.015841393 -0.36386144 -0.071878411 4286350473
-0.0082844347 -0.36874571 -0.07678239 4286284424
-0.011271871 -0.389395 -0.072906189 4286481805
-0.0059094275 -0.38366067 -0.078216799 4286219144
0.19611856 0.26329768 -0.083058432 4289967547
0.17650296 0.25350541 -0.085732915 4289571495
0.18356535 0.25993767 -0.08881852 4289768878
0.20554356 0.25826529 -0.084581383 4289967034
0.21689445 0.25623244 -0.083398074 4289836218
0.22742322 0.25232297 -0.086871773 4289967805
0.16947779 0.24408273 -0.088065892 4289439909
0.16747953 0.23814096 -0.080643848 4289439909
0.15910403 0.22492863 -0.087912701 4289439652
0.16198397 0.228797 -0.08223436 4289439909
0.15428987 0.21686943 -0.086198553 4289373858
0.14664873 0.20575273 -0.0810121 4289308321
0.13859436 0.19811554 -0.087927081 4289308065
0.12997177 0.18760073 -0.084355742 4289308321
0.12209143 0.1726597 -0.082673013 4289308321
0.11725712 0.16579327 -0.086285934 4289176735
0.1077937 0.15102898 -0.08202406 4289176735
0.11522429 0.15748192 -0.086087167 4288123534
0.12604138 0.15476064 -0.08282043 4287201403
0.14389397 0.14741829 -0.081322722 4286608500
0.158122 0.14254828 -0.085642472 4286872184
0.095120117 0.13225296 -0.087419838 4288782490
0.10084864 0.13980107 -0.086095519 4289045405
0.086150281 0.1201724 -0.081377499 4288453523
0.13769504 0.10053258 -0.08465714 4286871672
0.14330368 0.10857774 -0.082315125 4287068281
0.12497486 0.075545743 -0.085385054 4286740344
0.068242453 0.062957466 -0.088445425 4280821793
0.10804891 0.068497308 -0.08584445 4286280048
0.11795023 0.068963714 -0.085433558 4286542710
0.059908025 0.052396227 -0.085523248 4282532666
0.064599015 0.057048343 -0.085451141 4283256131
0.055596545 0.045967475 -0.087116651 4280098586
0.04509443 0.032528765 -0.084858835 4281940786
0.050724749 0.038158197 -0.084645502 4280098842
0.017624334 0.021751147 -0.083109602 4285888111
0.04063978 0.025082981 -0.086484276 4280032792
0.013353268 0.016840721 -0.082187578 4287006592
0.035390988 0.01906147 -0.085427582 4279836697
0.0065987534 0.006190666 -0.085922129 4286941056
0.028278574 0.0097364234 -0.089059465 4280033562
-0.0029012864 -0.009225199 -0.080018371 4288387729
0.23882508 -9.7294855e-05 -0.081837177 4289836985
0.24910547 -0.0066585699 -0.088708453 4289836985
0.25102398 -0.0074575348 -0.080508105 4289836985
-0.0060500433 -0.013611019 -0.084124193 4288651415
0.26927012 -0.019618103 -0.083962232 4289967034
0.2848689 -0.032208838 -0.086688355 4290032572
0.29168344 -0.03857784 -0.080852084 4290098108
0.29827678 -0.044098508 -0.0871519 4290032316
0.025139719 -0.086439103 -0.089563496 4280097047
0.032103617 -0.089834005 -0.086670853 4280097304
0.048387635 -0.096653044 -0.081994645 4281148965
0.05608971 -0.09949255 -0.087758854 4285425252
0.064399824 -0.10717874 -0.083745383 4285688937
0.10600784 -0.10988399 -0.082982711 4280099870
-0.062079445 -0.11305817 -0.081500418 4288587182
0.093927398 -0.11525877 -0.08439216 4280034077
0.10050239 -0.11221521 -0.083410151 4279902491
-0.055382397 -0.12097512 -0.08537592 4288521130
0.030344095 -0.12920885 -0.083365448 4279835157
0.082364984 -0.12054685 -0.08736413 4280165407
0.096258745 -0.12956192 -0.081462421 4285164135
-0.052557386 -0.13580449 -0.085014708 4288322976
0.061256938 -0.13993767 -0.082973734 4279639319
0.075565703 -0.13078187 -0.081396893 4279902491
0.10125007 -0.13410926 -0.085676968 4286875009
-0.053122181 -0.145423 -0.082279906 4288191131
-0.04515253 -0.14488299 -0.088926956 4287993492
0.016458012 -0.14833254 -0.084088065 4280097817
0.050854232 -0.14157987 -0.08967676 4279573526
-0.053986032 -0.15368292 -0.080425516 4287993492
-0.046059843 -0.15572841 -0.08627785 4287730321
0.008434983 -0.15992001 -0.084427401 4280098074
0.044818886 -0.15105018 -0.083765104 4279573269
0.12310174 -0.15015964 -0.087730713 4287664787
0.13252391 -0.15844476 -0.083816566 4287928218
-0.0469248 -0.16608357 -0.083448023 4287599251
0.030113736 -0.16067198 -0.085184306 4279507476
0.13866219 -0.16281581 -0.089694351 4288060060
-0.025244581 -0.17705518 -0.08281634 4285428074
0.0049954816 -0.17781535 -0.086336352 4279376147
0.021239569 -0.17093904 -0.080958419 4279573013
0.14788873 -0.17087369 -0.080701053 4288060577
0.15410101 -0.17533325 -0.088371277 4288127397
-0.046088442 -0.18168296 -0.080813341 4287795602
-0.03942902 -0.18457636 -0.085147314 4287663757
-0.0140795 -0.18221246 -0.085186571 4279376660
-0.0066493377 -0.18560144 -0.085755788 4279769880
-0.032567602 -0.19093202 -0.089211106 4287466377
-0.020993346 -0.19897752 -0.089584798 4281677108
-0.012022417 -0.1918474 -0.084829591 4280295455
-0.033194825 -0.20506819 -0.084798388 4287597451
-0.023392452 -0.20858839 -0.085550249 4280953641
-0.034399331 -0.2156882 -0.082843669 4287728523
-0.026773693 -0.21760105 -0.088964134 4287531402
-0.02766574 -0.22931656 -0.085408568 4287596937
-0.029022267 -0.24400657 -0.081866421 4287662474
-0.023876287 -0.25492013 -0.084246129 4287662216
-0.023127159 -0.27348548 -0.080756575 4287596424
-0.015999993 -0.27652314 -0.086871609 4287530631
-0.014550963 -0.29062998 -0.085518003 4287333765
-0.01060784 -0.30054152 -0.087853335 4287136130
-0.01102475 -0.3117395 -0.084438771 4286939521
-0.010805333 -0.32104304 -0.082688071 4286743171
-0.0047253612 -0.32391959 -0.088687867 4286414464
-0.0056835976 -0.33554035 -0.085574202 4286283394
-0.0061939135 -0.34497204 -0.083371773 4285955200
-0.00015354747 -0.35467315 -0.087863475 4285823871
-0.0045044464 -0.36418712 -0.080954775 4285824127
0.0029622475 -0.3694458 -0.087827109 4285889919
0.0048578419 -0.3829031 -0.088268623 4286020995
-9.8587116e-05 -0.39314887 -0.082715541 4286218375
0.1930228 0.26062003 -0.092173487 4290032827
0.18406358 0.25931266 -0.096251011 4289703345
0.20226783 0.25558624 -0.093852662 4289966778
0.21463224 0.25239065 -0.097223118 4289967290
0.22207682 0.25010073 -0.099048294 4290098622
0.23444289 0.24728645 -0.091038696 4289968063
0.24349815 0.24241254 -0.096282028 4289902014
0.2505759 0.24174947 -0.097517498 4289902013
0.15336753 0.21361764 -0.092112273 4289307808
0.14857581 0.20884618 -0.090335146 4289373601
0.13287275 0.15401714 -0.093850441 4285819752
0.14326848 0.14999837 -0.094420686 4286411893
0.15174487 0.14705609 -0.096763834 4287398527
0.080173582 0.081164196 -0.098003186 4280624673
0.077067718 0.076521054 -0.095364273 4280559137
0.067225963 0.06435176 -0.09535215 4280033049
0.071514577 0.06828773 -0.090728804 4280755744
0.058062695 0.052207813 -0.099114396 4279704342
0.054208443 0.045797378 -0.097320713 4279769878
0.045751192 0.033104647 -0.094380245 4279704342
0.029971844 0.01144682 -0.09803804 4279573012
0.03609496 0.018904718 -0.092375621 4279639061
0.021414617 0.00030099537 -0.096632279 4279573269
0.23390479 0.0020514 -0.090838291 4289705399
-0.0029706156 -0.0054129995 -0.095037952 4286743934
0.015517076 -0.0070676394 -0.09925361 4279441940
0.24420105 -0.00069608237 -0.093516715 4289705656
0.25489727 -0.0099326856 -0.090122804 4289770680
-0.0087351352 -0.012051447 -0.09976472 4287335813
0.26457396 -0.015420851 -0.09192697 4289901753
0.27339914 -0.022807745 -0.094405681 4289967035
0.28060937 -0.027857684 -0.093195841 4290098365
0.28304872 -0.030390618 -0.097321533 4290098365
0.29694569 -0.041984111 -0.095620163 4289900729
-0.0014202652 -0.074299 -0.098626636 4280821283
0.010393833 -0.079823963 -0.093895145 4279834391
0.018193873 -0.082603596 -0.095641389 4279965976
0.038414922 -0.090915263 -0.098108128 4281082915
0.043342676 -0.09401755 -0.09005969 4281214245
0.051221613 -0.096235991 -0.09584327 4285621859
0.062029842 -0.10399468 -0.097925618 4285951853
-0.043833945 -0.11739633 -0.097426929 4288257441
-0.04408941 -0.12772286 -0.094531715 4288125856
0.018613571 -0.12804946 -0.096999601 4279965976
0.065739684 -0.12583569 -0.095546767 4279770905
0.077721335 -0.12010206 -0.093753494 4279903004
0.091594994 -0.12616265 -0.096140303 4286939263
-0.044652533 -0.13375878 -0.092322528 4288060060
-0.036873199 -0.13293348 -0.099231996 4287928728
0.019213425 -0.13335761 -0.091780566 4280229147
0.059366692 -0.13039944 -0.094828352 4279705112
0.099943444 -0.13261007 -0.096289136 4287071619
-0.03755277 -0.14746588 -0.094867788 4287862166
0.0062205703 -0.1418474 -0.099556521 4280294939
0.011625889 -0.14489174 -0.091861628 4280623647
0.035588715 -0.14739093 -0.095184639 4279902234
0.1124768 -0.14226121 -0.090196498 4287270028
0.12171789 -0.14861453 -0.098525375 4287664531
-0.034398712 -0.158925 -0.095001027 4287532942
0.0072413916 -0.15079108 -0.091868095 4280623647
0.024824027 -0.15732694 -0.093031749 4279441940
0.12921393 -0.15504929 -0.092668556 4287731096
-0.037635293 -0.16968983 -0.091080874 4286678143
0.0030367123 -0.16603673 -0.095572188 4279638549
0.015357374 -0.16517088 -0.091077082 4279310354
0.14808553 -0.16927153 -0.098390847 4288389285
-0.028972125 -0.17886272 -0.091483362 4281415471
-0.012158771 -0.17904562 -0.098139502 4279178768
-0.0029639273 -0.1741934 -0.095785804 4279244561
0.15732709 -0.17703474 -0.094428219 4288455336
-0.019300343 -0.18310039 -0.096867211 4279310098
-0.027047781 -0.20591676 -0.092926629 4283715920
-0.020355161 -0.21228321 -0.095793702 4287398789
-0.01965411 -0.22009228 -0.0953172 4287464838
-0.02056982 -0.23203148 -0.091358706 4287530885
-0.01278129 -0.23450808 -0.097691685 4287530372
-0.016703943 -0.24132413 -0.093375221 4287596423
-0.013834619 -0.25745255 -0.093245298 4287596166
-0.0066718962 -0.26503536 -0.098425142 4287464324
-0.008667971 -0.27673227 -0.094298236 4287333509
-0.0062061241 -0.28335643 -0.094934143 4287267201
-0.0022047446 -0.29110581 -0.097449765 4286938750
-0.003807768 -0.30387443 -0.094425693 4286807421
-0.0042355978 -0.31313604 -0.091759369 4286611068
0.0041363388 -0.32749292 -0.096228138 4286216827
0.001723967 -0.33717701 -0.092411451 4286151550
0.0049363892 -0.34635568 -0.09361127 4285757819
0.0075671864 -0.35712305 -0.093973309 4285626233
0.015022286 -0.36308718 -0.099172354 4285429111
0.013587538 -0.37452871 -0.096713632 4285626233
0.01237992 -0.38458663 -0.094913162 4285757820
0.014674345 -0.39811617 -0.095862739 4285889664
0.19224884 0.25278354 -0.10474446 4289967033
0.2042215 0.25138697 -0.10402807 4289966777
0.21707053 0.24820358 -0.10753769 4290098364
0.2281446 0.24416862 -0.10997088 4290032828
0.23145919 0.24534301 -0.10030095 4289967806
0.24922152 0.24037798 -0.10338837 4289836221
0.074794948 0.074865542 -0.10302664 4280033050
0.06561029 0.064824879 -0.1060299 4279638805
0.052898157 0.047405001 -0.10812996 4279639062
0.048990116 0.039958019 -0.10316021 4279770135
0.038632467 0.026099727 -0.10634277 4279704599
0.027964793 0.011069739 -0.10880449 4279507475
0.032679331 0.01743458 -0.10684516 4279507477
0.22929277 0.015775707 -0.10382383 4289442484
0.024862668 0.0070199342 -0.10651881 4279441940
0.23415744 0.0076706507 -0.10103481 4289573813
0.014607638 -0.0078906938 -0.10873741 4279310353
0.2478147 -0.0021274043 -0.10069449 4289771192
0.252942 -0.0057906182 -0.10606188 4289836472
-0.011703312 -0.016659923 -0.10793564 4285493866
-0.00064416038 -0.019220775 -0.10889506 4279310610
0.0044344729 -0.011599605 -0.10090775 4279705112
0.01031993 -0.013189597 -0.10600696 4279376147
0.25984442 -0.011706497 -0.10009203 4289902009
0.26593274 -0.018086944 -0.10646549 4289967290
0.27625954 -0.025699724 -0.10329559 4290098364
0.28877637 -0.036054749 -0.10304362 4289966522
0.29228014 -0.03887428 -0.10628885 4289768887
0.0076121134 -0.077289954 -0.10193256 4281017124
0.024848297 -0.083957754 -0.10285035 4280294169
0.034264497 -0.0869084 -0.10991678 4282595382
0.04613116 -0.093391098 -0.10376239 4285622372
0.063036852 -0.10435864 -0.10740399 4286411891
-0.037303198 -0.11494919 -0.1040978 4288191391
0.06913349 -0.11074857 -0.10037845 4286346868
0.076217502 -0.11499413 -0.1064805 4286807161
-0.028904067 -0.12200944 -0.10969412 4287927960
0.088204876 -0.12412222 -0.10557907 4287070590
-0.029568683 -0.13523059 -0.10514335 4287796632
-4.7045221e-05 -0.13987786 -0.10645109 4280097305
0.0066593611 -0.13249777 -0.10702466 4280163354
0.011625646 -0.13372493 -0.10025463 4280097562
0.036045484 -0.1385363 -0.1043577 4279310098
0.04515845 -0.13650993 -0.10014942 4279441940
0.099457316 -0.13217711 -0.10300282 4287268742
0.1066151 -0.1362673 -0.10899524 4287466377
0.0010964043 -0.14799 -0.10075066 4280032025
0.023218973 -0.14649644 -0.10577358 4279244305
0.1114012 -0.14002098 -0.10083879 4287401098
-0.030027492 -0.15009966 -0.10097653 4287532943
-0.022426061 -0.15221834 -0.10675708 4287401356
-0.010120191 -0.15598698 -0.108725 4280427040
0.011798815 -0.15499523 -0.10482088 4279244561
0.12964045 -0.1547669 -0.10151763 4287862166
-0.022704786 -0.16196814 -0.10394327 4287532427
-0.0052984809 -0.16515705 -0.10283258 4279506964
0.002161707 -0.1611419 -0.10571347 4279178768
0.14081685 -0.16366938 -0.10411474 4287994266
-0.036381431 -0.17816815 -0.10176101 4279507731
-0.021926302 -0.17752165 -0.10631935 4279573013
0.15673436 -0.17555477 -0.10558948 4288586924
-0.029508578 -0.18069588 -0.10717908 4279113231
0.16591725 -0.18283018 -0.10343301 4288718767
-0.034963761 -0.19401015 -0.1094074 4280163869
-0.027104141 -0.1936432 -0.10052159 4281150765
-0.015256079 -0.19645093 -0.10392342 4287399557
-0.033063315 -0.20221892 -0.10169266 4280164638
-0.010964783 -0.21365379 -0.10411566 4287398787
-0.01209534 -0.22246718 -0.10141039 4287398788
-0.0048318221 -0.22535913 -0.10759427 4287332480
-0.0049866992 -0.23401135 -0.10526619 4287398273
-0.0064850799 -0.2419658 -0.10260449 4287529860
0.00014594408 -0.24695455 -0.10972933 4288056202
-0.004859006 -0.25608569 -0.10271084 4288319375
-0.0027804549 -0.26376778 -0.10282826 4288780182
-0.0014119911 -0.27500182 -0.10142249 4287530116
0.0062830574 -0.2787278 -0.10772878 4286937979
0.0030074138 -0.28718838 -0.10329201 4286938749
0.0045483606 -0.29365695 -0.10398119 4286806907
0.0041972832 -0.31059176 -0.1006765 4286478970
0.010640721 -0.31763384 -0.10474731 4286216055
0.017371347 -0.32963654 -0.10839639 4285756019
0.0092351316 -0.33531335 -0.1010175 4285822840
0.016065575 -0.33906227 -0.106662 4285690741
0.017303694 -0.3551656 -0.10350911 4285362545
0.022854848 -0.35326675 -0.10944483 4284835942
0.023955563 -0.3605153 -0.109723 4284901737
0.019680932 -0.37746498 -0.10267088 4285363319
0.019867318 -0.38653541 -0.10136277 4285494649
0.022595627 -0.38180548 -0.10507573 4285231990
0.021373728 -0.40327477 -0.1017462 4285692284
0.19880073 0.24752001 -0.11946649 4290098106
0.20609236 0.24795 -0.11465123 4289967033
0.21865055 0.24538088 -0.11520935 4289967035
0.22501022 0.24400769 -0.11986811 4289966779
0.23636962 0.24084897 -0.11727554 4289901499
0.24639645 0.23615751 -0.11631167 4289967036
0.071779065 0.070913956 -0.11621495 4279770135
0.065909281 0.066794738 -0.11781853 4279704855
0.060487289 0.059091069 -0.11317563 4279639319
0.047029961 0.040015742 -0.1135902 4279639062
0.051346239 0.047542457 -0.11751284 4279573526
0.035233673 0.02319609 -0.1153556 4279573270
0.040016908 0.029145483 -0.11317008 4279638805
0.22648887 0.018967547 -0.1144597 4289903038
0.23321451 0.011936409 -0.11115551 4289442484
0.019227426 0.00010187071 -0.11320574 4279836441
0.025244603 0.0097061377 -0.11952452 4279376145
0.23910163 0.0070466087 -0.11751167 4289310642
0.24269344 0.00044834454 -0.11204337 4289705399
0.012549383 -0.0080688633 -0.11935086 4279310096
0.25052476 -0.0038560182 -0.11591189 4289836473
0.26153466 -0.013587318 -0.11447209 4289901754
-0.015465769 -0.023703659 -0.11752893 4282666306
-0.004617047 -0.022907704 -0.11246824 4279310611
0.0042959154 -0.020248568 -0.11756747 4279310610
0.27037621 -0.020487268 -0.11494172 4290032570
0.28384182 -0.0313426 -0.11667563 4289834935
0.044449791 -0.092478186 -0.11502188 4285885289
0.053443298 -0.098108821 -0.11423467 4286280046
0.059969474 -0.10238974 -0.11621984 4286674550
-0.026850412 -0.1112563 -0.11466771 4287993497
0.071413524 -0.11131521 -0.11439911 4286937977
-0.020678656 -0.12082609 -0.11718089 4287992981
0.083335049 -0.1202665 -0.11499038 4287005055
0.092551231 -0.12631004 -0.11479692 4287268485
-0.021203125 -0.13154833 -0.11371207 4287730323
-0.013552505 -0.13353598 -0.11939779 4287467149
-0.0018907997 -0.13576852 -0.11316501 4280097560
0.025558328 -0.13581893 -0.11546446 4278981389
0.036640294 -0.13458109 -0.11009196 4279310354
-0.021922901 -0.14053437 -0.11037879 4287598995
-0.012691358 -0.14377466 -0.11624797 4284967015
0.0066301199 -0.14890276 -0.11548255 4279046925
0.015782891 -0.1404248 -0.11751459 4278981132
0.11336782 -0.14114507 -0.11803333 4287532429
0.12093348 -0.14745109 -0.11062583 4287401869
-0.014130477 -0.15597636 -0.11744509 4281480497
-0.0051398156 -0.15346265 -0.116902 4279112719
-0.014521459 -0.16392711 -0.11544 4278981389
0.13899808 -0.16167206 -0.11449067 4288059543
0.14627932 -0.16791937 -0.11482476 4288388512
-0.04184657 -0.17774998 -0.11055948 4279179024
-0.035095584 -0.17826101 -0.11514975 4279047439
-0.0087973736 -0.17587955 -0.11465963 4287136897
0.1570127 -0.17567271 -0.11858657 4288718255
-0.037275534 -0.18692406 -0.1173938 4280032540
-0.01048613 -0.18419905 -0.11151251 4287202691
-0.0033503296 -0.18405274 -0.11849143 4287004540
0.16437247 -0.18111764 -0.1130129 4288653490
-0.042742521 -0.19556783 -0.11762671 4280164125
-0.0029357807 -0.1996032 -0.11511198 4287135615
-0.0034798626 -0.20504084 -0.11352396 4287200894
0.0038161713 -0.20731671 -0.11926848 4286937976
-0.0039790049 -0.21579047 -0.11062735 4287266943
0.0021551314 -0.22544491 -0.11468798 4287135356
0.00099533738 -0.2354774 -0.11234864 4287266943
0.014051387 -0.27704129 -0.1161886 4286938749
0.01707159 -0.29459307 -0.11518428 4286346869
0.01493854 -0.30807677 -0.11084966 4286083955
0.017974759 -0.31803176 -0.11202826 4285821040
0.026243228 -0.3225446 -0.11949245 4285426537
0.024571998 -0.33117929 -0.11528149 4285361517
0.028384473 -0.34286201 -0.1176164 4283189832
0.029198686 -0.35484827 -0.11758065 4282531386
0.030243278 -0.36471945 -0.11976387 4281084713
0.02820209 -0.37590757 -0.11827299 4281018664
0.030052276 -0.38623503 -0.11477851 4282268993
0.028488589 -0.39059889 -0.11008398 4283585623
0.027602648 -0.40538791 -0.11261332 4282663495
0.032521382 -0.4032459 -0.11774488 4280294945
0.20138945 0.24577314 -0.12886287 4290032569
0.21650802 0.24353844 -0.12558064 4289966778
0.24149449 0.23522525 -0.12300192 4290032572
0.062355574 0.064195067 -0.12699051 4280428321
0.057418935 0.057341944 -0.12222771 4279639319
0.048074361 0.044510715 -0.12655714 4279573526
0.043827366 0.037069157 -0.12267242 4279573526
0.033308111 0.023035098 -0.12548628 4279376147
0.21732703 0.023828609 -0.12477894 4289771450
0.2288857 0.018801728 -0.12284368 4289771452
0.23672932 0.014588036 -0.1243236 4289639867
0.018240297 0.0011686704 -0.12415818 4279244303
0.022369126 0.0077928281 -0.12821783 4279309840
0.069838777 -0.0045117247 -0.12579049 4283585868
0.080071494 -0.0069184606 -0.12744117 4285361507
0.24800517 -0.00072001811 -0.12161093 4289770680
0.25627512 -0.0048890817 -0.12577508 4289639352
0.0075219884 -0.013056801 -0.12725942 4279310352
0.26507372 -0.015090376 -0.12989286 4289967291
-0.0017511919 -0.026986703 -0.12404569 4279310611
0.27401137 -0.022826767 -0.12540883 4289967035
-0.015633646 -0.030324457 -0.12438996 4279507988
0.045639575 -0.092539772 -0.12294403 4286345328
0.052343018 -0.096214585 -0.12594526 4286608755
0.06691096 -0.10731102 -0.1223116 4286938235
-0.020601071 -0.11250193 -0.12047153 4287730579
-0.013674058 -0.11426733 -0.12694655 4287467151
0.080759212 -0.11750847 -0.1236271 4287267457
-0.013712252 -0.12316733 -0.12283194 4287336337
-0.0051251724 -0.12602998 -0.1298366 4287072903
0.027664326 -0.12977763 -0.12121642 4278717961
-0.0044548707 -0.13634886 -0.12906776 4282993738
0.0074112918 -0.13571826 -0.12891915 4278783496
0.015523558 -0.1331763 -0.12623364 4278783240
0.099583745 -0.13069178 -0.12092819 4287531399
-0.0025809722 -0.1483824 -0.12258121 4278915596
0.0018802297 -0.14476989 -0.12325504 4278915339
0.11285912 -0.14044714 -0.12768149 4287532426
0.1209376 -0.1471785 -0.12203443 4287532941
-0.021294333 -0.15675259 -0.12614706 4279243791
-0.013754336 -0.15091984 -0.12892933 4278980876
-7.2206667e-06 -0.15606324 -0.12688671 4286677374
0.12910147 -0.15411888 -0.12381084 4287598992
-0.00031046727 -0.16593704 -0.12399419 4286676861
0.13854465 -0.16197628 -0.12692651 4287927955
-0.046726394 -0.17705972 -0.12168994 4279112975
-0.034974817 -0.17274818 -0.12214208 4279178512
0.0053786924 -0.18414742 -0.12577319 4286675832
-0.047530826 -0.19176529 -0.12558608 4280098331
0.0043380726 -0.20190381 -0.12169381 4286872185
0.012097124 -0.20881605 -0.1267335 4286609015
0.00745488 -0.2146669 -0.12117855 4286806393
0.01400166 -0.22672606 -0.12487257 4286609012
0.025953211 -0.30473581 -0.1221782 4285557609
0.032461397 -0.3081634 -0.1283645 4282463539
0.034953233 -0.32556313 -0.12835535 4280426014
0.033781976 -0.33387494 -0.12527278 4281215529
0.03594169 -0.34461096 -0.1255105 4279768596
0.032541011 -0.35299993 -0.12360337 4279703315
0.019121615 -0.37025633 -0.12845349 4279637525
0.019904876 -0.3973825 -0.12603018 4279703577
0.03352648 -0.39606923 -0.12192409 4279769111
0.023751875 -0.40271088 -0.1213006 4279965725
0.20925657 0.2412719 -0.13569812 4290032570
0.21659884 0.23843852 -0.13800684 4290032570
0.23568299 0.23580284 -0.13207138 4290032572
0.2440425 0.23051555 -0.1314849 4289967036
0.058906026 0.061986227 -0.13571355 4279836698
0.054012217 0.054697677 -0.1315069 4279639062
0.046438571 0.045439169 -0.13715699 4279376147
-0.066206396 0.034332301 -0.13979068 4288716955
0.042218242 0.037080757 -0.13312843 4279376147
0.029673621 0.020448681 -0.13439088 4279244561
0.036695719 0.029948432 -0.1345557 4279376147
0.21741034 0.025846913 -0.1392169 4289639607
-0.067699723 0.019368006 -0.13906844 4288717213
0.2353882 0.016267598 -0.13562185 4289442230
-0.068537861 0.0076133148 -0.13946821 4288585368
0.017666273 0.0032559328 -0.136678 4279310354
0.020497749 0.0078202076 -0.13823169 4279178768
0.24819352 0.005278185 -0.13271102 4289244596
0.012893141 -0.0053854296 -0.13120326 4279310353
0.065125093 -0.0055464497 -0.13357848 4284243794
0.26200354 -0.0098833963 -0.13992897 4289572790
0.0058102515 -0.013280305 -0.13732818 4279244560
0.074268296 -0.010574991 -0.13967432 4288256387
0.085082732 -0.011403681 -0.13800433 4288124291
0.098012552 -0.011644647 -0.13971961 4289176211
0.270219 -0.019009816 -0.13743189 4289835448
-0.0020928632 -0.02542188 -0.13276204 4279244561
-0.01799874 -0.036426138 -0.13259086 4279244816
-0.0086957728 -0.033744719 -0.13136674 4279310354
0.058263157 -0.10126629 -0.13900927 4287201150
0.065561421 -0.10604983 -0.13345709 4287200893
-0.011081814 -0.11059643 -0.13254888 4287204236
-0.0051595019 -0.11458611 -0.13568121 4287006856
0.076172121 -0.11358046 -0.13117558 4287332993
0.080306262 -0.11596751 -0.13998139 4287398790
0.011642578 -0.1275318 -0.13472466 4278849032
0.092384189 -0.1254029 -0.13305262 4287400070
-0.010016184 -0.13881238 -0.13849667 4278783754
0.0075738756 -0.13003156 -0.13385588 4278717447
0.10650995 -0.13530996 -0.13355112 4287400586
-0.022962965 -0.14969981 -0.13684925 4279112461
-0.0089048091 -0.14896445 -0.13855703 4284571226
0.00755991 -0.14953651 -0.13393153 4286414202
0.11935396 -0.14581539 -0.13284294 4287598478
-0.040305998 -0.1571532 -0.13862857 4279769878
-0.028274167 -0.15569608 -0.13449523 4278981389
0.007742451 -0.15791203 -0.13329463 4286413947
0.015311318 -0.15980619 -0.13937856 4286150259
0.13397235 -0.15868697 -0.13446033 4287993497
-0.057031751 -0.16947179 -0.13559487 4279047695
-0.036943205 -0.16324224 -0.1326233 4278981389
0.0064239134 -0.16930614 -0.13025899 4286478969
-0.048284832 -0.17198981 -0.13153265 4279113231
0.014392694 -0.17152247 -0.13633484 4286084467
0.1495942 -0.17045285 -0.13068229 4288389286
-0.055018354 -0.18719196 -0.13784875 4280229917
0.013364037 -0.18186358 -0.13412692 4286149746
0.014429335 -0.19346645 -0.13258457 4286083952
0.020606922 -0.19159961 -0.13781531 4285820525
0.019865505 -0.20991622 -0.13308929 4286017132
0.018141584 -0.21828239 -0.13068873 4286148461
0.025971817 -0.2168227 -0.13871388 4285622373
0.024120208 -0.22792786 -0.13603681 4285819239
0.037634935 -0.31452873 -0.13350919 4280097306
0.010647761 -0.34803021 -0.13938096 4279703060
0.011958645 -0.36198553 -0.13556877 4279702803
0.0045572789 -0.38562903 -0.13988379 4279703575
0.0057157152 -0.3921712 -0.1366888 4279769625
0.19734019 0.24064666 -0.142518 4290098362
0.2119974 0.23661582 -0.14625299 4289966777
0.2252913 0.2321787 -0.1493264 4290032572
0.23292553 0.23224589 -0.14088877 4290032572
0.24056172 0.22620417 -0.14562356 4289966267
-0.050438449 0.099099189 -0.14956354 4288322453
-0.051938817 0.083797008 -0.14778781 4288059024
-0.050885122 0.076102354 -0.14984696 4287730058
-0.056035765 0.066848747 -0.14584599 4288124817
-0.033458449 0.065761402 -0.14783835 4281612079
0.061788097 0.06727232 -0.14581147 4279836698
-0.056990679 0.05649874 -0.14611693 4287993232
-0.033457205 0.054937251 -0.14914459 4279835927
0.052718751 0.056743588 -0.14406745 4279441940
-0.06202453 0.043701891 -0.14187719 4288585369
-0.057203207 0.041104276 -0.14808035 4287927439
-0.036406104 0.043143321 -0.14659967 4279770390
0.046613615 0.049305059 -0.14950635 4279178512
-0.059985928 0.035931915 -0.14644 4288190611
-0.037332922 0.035421897 -0.14723541 4279836440
0.039674137 0.036914177 -0.14343657 4279244561
-0.065238491 0.026272267 -0.14144719 4288651162
-0.059902675 0.022306252 -0.14804274 4288256403
-0.040158909 0.028116349 -0.14683954 4280033819
-0.037196279 0.023123471 -0.14919251 4279573525
0.029462978 0.023086183 -0.14615461 4279112975
0.22711323 0.022449955 -0.14055477 4289508022
-0.064375103 0.015573783 -0.14393081 4288519575
-0.039919835 0.018872488 -0.14891566 4279507989
0.025048507 0.015890185 -0.14257637 4279178768
0.2346684 0.01841685 -0.14654066 4289310387
-0.063631937 0.004035634 -0.14655662 4288322193
0.015741913 0.0034990532 -0.14653735 4279112718
0.24282567 0.0098614134 -0.14898703 4289244340
0.25440252 0.00075193017 -0.14075606 4289244341
-0.062223613 -0.0023384157 -0.1486136 4288651415
0.0091750091 -0.0065085785 -0.14630069 4279376147
0.065768123 -0.0055876109 -0.14320675 4285428064
0.26335269 -0.0068307579 -0.14971665 4289046449
0.0024676691 -0.015833264 -0.14627694 4279376145
0.070222743 -0.010693557 -0.14958303 4286809457
0.093180753 -0.015449194 -0.14487846 4289834393
0.26918995 -0.014864198 -0.14903089 4289045420
-0.0050808121 -0.027542368 -0.140517 4279310352
-0.011505106 -0.035396677 -0.14645569 4279244817
-0.020702552 -0.041052308 -0.14132667 4279178768
-0.017285587 -0.042811096 -0.14199971 4279113232
0.053517267 -0.098020889 -0.14761072 4287331968
0.064324833 -0.10451429 -0.14465965 4287398272
0.0060644574 -0.11513375 -0.14396781 4282796358
0.074854791 -0.11194465 -0.14128149 4287398529
0.082890362 -0.11802642 -0.14908789 4287399302
-0.001891196 -0.12236632 -0.14901528 4278651654
0.00025710699 -0.12882324 -0.14089453 4278717447
0.087969758 -0.12091475 -0.14081632 4287399558
0.097060934 -0.12794676 -0.14308295 4287465865
-0.017188011 -0.13728313 -0.14600648 4279046925
0.0088927969 -0.13379383 -0.14058912 4286874498
0.016326841 -0.13608736 -0.1470103 4286611324
0.10863215 -0.13709286 -0.1433294 4287532171
-0.030414803 -0.14355791 -0.1493157 4279310097
-0.024220705 -0.14388993 -0.14452419 4279178768
0.011619239 -0.14928888 -0.1410851 4286807932
0.11481737 -0.14287418 -0.14771941 4287795601
0.12402609 -0.14985347 -0.14992052 4287861909
-0.046820004 -0.15602581 -0.14836913 4279836698
-0.033038605 -0.15156426 -0.14251059 4279178768
-0.026386594 -0.1500295 -0.14669012 4286939004
0.003304017 -0.15008365 -0.14707436 4287793798
0.016294783 -0.15388674 -0.14178634 4286151030
0.023259366 -0.15399736 -0.14795867 4285624425
0.13113979 -0.15551975 -0.14386925 4287993752
-0.058434904 -0.16467969 -0.14483005 4279179024
0.022839997 -0.16182907 -0.14559546 4285360483
0.14269292 -0.16469812 -0.14266589 4288323236
-0.05740086 -0.17411219 -0.14964908 4280098847
0.021655155 -0.17438523 -0.14245494 4285689194
-0.062255386 -0.18247865 -0.14972375 4280032539
0.0082431296 -0.18916278 -0.14945818 4284441686
0.024084367 -0.18356819 -0.14356396 4285360483
0.027884198 -0.19954805 -0.14165065 4285425251
0.039377108 -0.19339998 -0.14862317 4285690980
0.043665674 -0.19664696 -0.14868692 4286677621
0.027235763 -0.20808452 -0.14031257 4285556323
0.032910783 -0.2058554 -0.1491479 4281609001
0.02940858 -0.2263366 -0.14131133 4283910985
0.035501733 -0.23016115 -0.14970665 4280227862
-0.060265828 -0.26279271 -0.14439772 4290821304
0.041885134 -0.31667352 -0.14082806 4279900183
0.008003124 -0.32186967 -0.14862746 4279900183
0.0076983953 -0.33558863 -0.14604339 4279768853
0.0063693528 -0.36275628 -0.1429538 4279703319
0.0058508357 -0.37353611 -0.14095476 4279703319
-0.0032347026 -0.3843236 -0.14747135 4279769113
0.19481382 0.23979607 -0.15194391 4289967289
0.20303176 0.23632948 -0.1540315 4290032826
0.21372288 0.23318297 -0.15638846 4289967034
0.22239259 0.23061273 -0.1587936 4290032572
0.23306616 0.22641845 -0.15571682 4290032315
-0.035126396 0.14756495 -0.15796486 4288979356
-0.036855213 0.13483191 -0.15733734 4288782489
-0.041007131 0.12509148 -0.15506294 4288650904
-0.037452068 0.12690556 -0.15879501 4288387989
-0.041195776 0.11601928 -0.15428485 4288322196
-0.037456494 0.11920327 -0.15751307 4288124817
-0.04466195 0.10510451 -0.15269147 4288190609
-0.037657011 0.1089933 -0.15690838 4287861645
-0.017852986 0.10038581 -0.15795161 4280558624
-0.048023142 0.09511596 -0.15181905 4287861901
-0.022867691 0.093744472 -0.15422927 4281742381
-0.047676742 0.082661435 -0.15130037 4287598728
-0.024551142 0.083817787 -0.15387274 4280098586
-0.043873444 0.073201329 -0.15168966 4286348660
-0.024248496 0.076378144 -0.15402311 4279967513
-0.050925691 0.063953131 -0.15122487 4287137922
-0.04835508 0.069952138 -0.15233897 4286809213
-0.025969421 0.066168718 -0.15403274 4279901721
0.059551399 0.062933281 -0.15552238 4279507733
-0.051090252 0.054061934 -0.15272146 4286414199
-0.025762316 0.05416061 -0.15712616 4279770135
0.056321159 0.055513494 -0.15723938 4280362527
-0.053700093 0.045283206 -0.15145744 4287006336
-0.030886406 0.044867575 -0.15136589 4279835928
0.039538912 0.040502161 -0.15536827 4278849546
-0.054113586 0.037723627 -0.1546465 4286480248
-0.028359644 0.03639688 -0.15619557 4279573270
0.035009388 0.032264955 -0.15134226 4278980876
-0.054744385 0.02562161 -0.15422958 4286677884
-0.03300124 0.029292801 -0.15198623 4279639062
-0.028667882 0.02299758 -0.15865876 4279441940
0.027445883 0.022881839 -0.15674566 4278915339
0.21438497 0.027025783 -0.15549262 4289376436
0.225982 0.023599464 -0.15168662 4289310387
-0.057071418 0.014225518 -0.15344614 4287730315
-0.034791552 0.013660613 -0.15256044 4279441940
0.023302043 0.015604477 -0.15216631 4279046926
-0.053348824 0.0073536374 -0.15870368 4286349176
-0.045314495 0.0023350914 -0.15532751 4280033561
-0.035091646 0.0059861937 -0.15459347 4279441940
0.012496649 0.001357217 -0.15550131 4279507476
0.061633766 0.0037356354 -0.15185529 4282993982
0.24851434 0.0073399032 -0.15960771 4289178033
0.25160232 0.0038844445 -0.15098235 4289244083
-0.05841139 -0.00042131727 -0.15490295 4288190865
-0.042957578 -0.0045222626 -0.15680496 4279639318
-0.035688706 -0.00065878039 -0.15464288 4279376148
0.063902639 -0.0045183306 -0.15548876 4285427806
0.10955874 -0.0085833594 -0.15392609 4289900708
-0.040727764 -0.011496771 -0.15932818 4279376403
-0.035501257 -0.015509252 -0.15978286 4279244818
0.0022245767 -0.013419982 -0.15824568 4279441683
0.072223403 -0.013269686 -0.15562712 4288322697
0.080668867 -0.015839158 -0.15123074 4287796097
0.094687104 -0.016411461 -0.15575998 4290295456
0.10554491 -0.012178418 -0.15474734 4290294948
0.26573813 -0.011586922 -0.15759593 4289177006
-0.0054599312 -0.024726268 -0.15465003 4279507733
-0.011691579 -0.032407984 -0.15839668 4279771161
-0.023036515 -0.046406347 -0.15519662 4279178768
0.049781851 -0.095428497 -0.15423827 4288912021
0.059550222 -0.10099363 -0.15259916 4287398529
-0.0039505735 -0.11794916 -0.1585255 4279704340
0.0039410633 -0.11887674 -0.15177228 4278914826
0.016128363 -0.1143119 -0.15580897 4286546048
0.072793469 -0.11012489 -0.15066692 4287464582
-0.012924537 -0.12892862 -0.15125495 4278981132
0.010659767 -0.12729156 -0.15669686 4282203955
0.089856029 -0.12259669 -0.15510954 4287596938
-0.036144745 -0.13765843 -0.15971619 4279375890
-0.022129759 -0.13322124 -0.15397453 4279376146
0.1054112 -0.1342943 -0.15674773 4287729293
-0.073414989 -0.14798975 -0.15780644 4279705624
-0.043561589 -0.14499642 -0.15805317 4279376404
-0.03461764 -0.14770718 -0.15446135 4283716429
-0.023473199 -0.14832857 -0.15426469 4288716187
0.026505692 -0.1429296 -0.15493104 4285690222
-0.067935564 -0.15636514 -0.15410887 4279310867
-0.056014914 -0.15743114 -0.15617938 4279507476
-0.049745254 -0.15054408 -0.15654688 4279244818
-0.015383341 -0.15133175 -0.1533605 4286872181
-0.0080215568 -0.15148085 -0.15758324 4288516493
0.0051721432 -0.15120853 -0.15528561 4287793284
0.030358164 -0.15196863 -0.15664071 4283781450
0.13001105 -0.15445788 -0.15587617 4287993755
-0.051017467 -0.16052903 -0.15302618 4280361504
0.029836271 -0.16258955 -0.15486358 4282794299
0.13821334 -0.16140062 -0.15722816 4288322979
-0.067213506 -0.17801814 -0.15826188 4279967260
0.028919602 -0.17401278 -0.15111428 4282398774
-0.067613862 -0.18553469 -0.1558512 4280229660
0.0043206248 -0.18994905 -0.15627462 4283717964
0.024161564 -0.18986818 -0.15131673 4285099099
0.03500824 -0.18816213 -0.15909807 4279834645
0.037531834 -0.19466016 -0.15335803 4286940784
0.044806004 -0.19780593 -0.15735678 4288453769
0.038542636 -0.20957308 -0.15782113 4280163097
0.034401879 -0.21632954 -0.15027033 4280754463
0.037848942 -0.2210318 -0.15475267 4280097047
-0.057802945 -0.26429105 -0.15274367 4287266681
-0.055122763 -0.27280107 -0.15208243 4287332987
-0.045315746 -0.27935469 -0.15618327 4288977552
0.0046779308 -0.31445479 -0.15444526 4279834647
-0.0020129245 -0.32383344 -0.15930338 4280032281
0.0045302706 -0.32717943 -0.15184148 4279835161
0.0030639912 -0.33481169 -0.15261236 4279834647
-0.0055888575 -0.34396338 -0.15946485 4279769111
0.001383647 -0.3492704 -0.15103383 4279769111
0.00031896023 -0.35904291 -0.15009099 4279834649
-0.0053391317 -0.36756125 -0.15302522 4279572248
-0.010408566 -0.37119362 -0.15860184 4279638041
-0.0093824528 -0.38468039 -0.15481438 4279900697
0.059942644 0.3305172 -0.16997007 4289902013
0.075832203 0.32894254 -0.16605294 4289836735
0.085158847 0.32771292 -0.16592942 4289836477
0.19578266 0.23635347 -0.16268086 4289967033
0.20783669 0.23122795 -0.16550373 4289901754
0.21932347 0.22797139 -0.16807555 4290098365
0.2284954 0.22332549 -0.16970651 4289966522
-0.019848255 0.20049509 -0.16833921 4289242530
-0.021968808 0.19623804 -0.16687959 4289176735
-0.022126839 0.18425705 -0.1680733 4289110686
-0.025320129 0.17464958 -0.16519265 4289045149
-0.028462538 0.1634258 -0.16323411 4288979613
-0.032287091 0.15528329 -0.1606968 4288979612
-0.025555519 0.15499181 -0.16795276 4288913817
-0.032932471 0.14365955 -0.16089883 4288848283
-0.027944427 0.14645669 -0.16647653 4288716439
-0.033141423 0.13460621 -0.16333945 4288519060
-0.02974629 0.13930702 -0.16568762 4288584853
-0.01073819 0.11226744 -0.16566978 4280492829
-0.0079259975 0.11692841 -0.16741516 4280821795
-0.012793428 0.10552277 -0.16433248 4280493087
-0.015024801 0.093191378 -0.16363613 4280756516
-0.013774949 0.085870452 -0.16612522 4280230685
-0.017073832 0.074426718 -0.16398019 4279901721
-0.018336706 0.065447159 -0.16401508 4279704599
-0.015530847 0.057035342 -0.16896662 4279704855
0.047138978 0.0500765 -0.16120692 4279244047
-0.022628887 0.045238875 -0.1618908 4279704598
-0.019586295 0.049733944 -0.1644744 4279639319
0.040754795 0.044609066 -0.16343255 4278585861
0.053687494 0.046165232 -0.1658752 4282533171
-0.022670239 0.032264836 -0.16415516 4279573269
-0.018377677 0.038674768 -0.16792268 4279573526
0.033325218 0.03118992 -0.1610254 4278651911
0.204647 0.0366349 -0.16839424 4289310900
0.21560493 0.030843843 -0.16471788 4289244851
-0.023590289 0.024308935 -0.16402018 4279507733
0.031375233 0.027722543 -0.16538531 4278717447
0.22494166 0.0253601 -0.16275762 4289178802
0.23178554 0.020264424 -0.1689043 4289244339
-0.024477735 0.016535634 -0.16481093 4279639062
0.01818943 0.010705546 -0.16060452 4279046925
0.022902921 0.017576881 -0.16480234 4278849546
0.033545662 0.012825391 -0.16819862 4282204725
0.054818079 0.010910481 -0.16891283 4288783246
0.061876439 0.013452566 -0.16754723 4289046678
0.23626058 0.016620858 -0.16094857 4289244596
0.24161491 0.012456768 -0.16556038 4289243825
-0.049944069 0.0020050842 -0.16072614 4284178262
-0.026755245 0.0065182075 -0.16366598 4279310354
0.010550402 0.00075625605 -0.16567916 4279376146
0.05866849 0.0087497002 -0.16401778 4282796857
0.061540034 0.0044548456 -0.16151375 4284572755
0.24435192 0.0092536844 -0.16926177 4289112238
-0.052858938 -0.0035530934 -0.16155234 4286809470
-0.031790227 -0.0078439703 -0.16027458 4279376147
-0.027336709 -0.001159602 -0.16450787 4279310353
0.063691355 -0.0014637617 -0.16442975 4286085993
0.25841725 -0.0029296419 -0.16395466 4289111725
-0.046196558 -0.016593378 -0.16472086 4282402366
-0.030083461 -0.019858427 -0.16331573 4279245074
-0.027432626 -0.014154352 -0.16652209 4279244561
-0.0020920218 -0.01679549 -0.16731396 4279442196
0.074983239 -0.014315229 -0.16512768 4287730044
0.083105855 -0.017104523 -0.16204001 4289242764
0.098652437 -0.015648212 -0.16645075 4290558629
0.10308654 -0.012311652 -0.16478354 4290756011
-0.04445155 -0.023234308 -0.16874476 4282468158
-0.034736987 -0.022916069 -0.16291939 4279179025
-0.026614003 -0.024818419 -0.16847895 4279179281
-0.030260751 -0.030421749 -0.16794458 4279179025
-0.030370373 -0.04853069 -0.16886865 4279113231
-0.018760772 -0.040854171 -0.16430232 4279310866
-0.013064253 -0.053773735 -0.16672662 4280031256
0.02315028 -0.075204134 -0.1669707 4287003771
0.052476928 -0.096235037 -0.16498281 4287858823
-0.0028330872 -0.10671239 -0.16963801 4279836184
0.066972151 -0.10573567 -0.16428356 4287530372
-0.034305401 -0.11682466 -0.16775927 4279966748
-0.0149644 -0.11824541 -0.16423874 4279375890
-0.005431646 -0.11208557 -0.16608591 4279902232
0.02639452 -0.1135039 -0.16649398 4285164905
0.075733013 -0.11195699 -0.1608699 4287530373
0.085082956 -0.11863225 -0.16299836 4287596680
-0.033581339 -0.12776959 -0.16359052 4279638293
-0.022884823 -0.12631634 -0.16236553 4279507733
0.0035800184 -0.12462398 -0.16605149 4285625439
0.025559394 -0.12565587 -0.16169715 4284769122
0.095957242 -0.12724711 -0.16464578 4287728780
-0.077782445 -0.13618812 -0.16303395 4285955442
-0.0423299 -0.13286461 -0.16943863 4279507733
-0.023517633 -0.13512668 -0.16728035 4286478709
0.016147116 -0.1359513 -0.16934304 4285625698
0.02801754 -0.13554947 -0.16003408 4284439899
0.10342232 -0.13261792 -0.16747943 4287794831
-0.066622868 -0.1466472 -0.16861501 4279507989
-0.056579415 -0.14862423 -0.16411211 4279310610
-0.048801001 -0.14124857 -0.1656553 4279442196
-0.016264014 -0.14565064 -0.16243896 4287662725
0.034085188 -0.14908558 -0.16529045 4280293654
0.12023208 -0.14646001 -0.16304497 4287927446
